# .PCD v0.7 - Point Cloud Data file format
VERSION 0.7
FIELDS x y z rgba
SIZE 4 4 4 4
TYPE F F F U
COUNT 1 1 1 1
WIDTH 1264
HEIGHT 1
VIEWPOINT 0 0 0 1 0 0 0
POINTS 1264
DATA ascii
0.087474003 -0.039817002 1.0666 921102
0.089787997 -0.039928999 1.0696 1117707
0.091857001 -0.039928999 1.0696 1314064
0.093925998 -0.039928999 1.0696 1182740
0.095725998 -0.039817002 1.0666 1117714
0.097788997 -0.039817002 1.0666 1052176
0.100133 -0.039928999 1.0696 1052178
0.102202 -0.039928999 1.0696 1052180
0.10427 -0.039928999 1.0696 1052179
0.106339 -0.039928999 1.0696 987155
0.108408 -0.039928999 1.0696 920851
0.11089 -0.040077999 1.0736001 1117203
0.112967 -0.040077999 1.0736001 1379858
0.115043 -0.040077999 1.0736001 1379857
0.11712 -0.040077999 1.0736001 1380113
0.119197 -0.040077999 1.0736001 1380882
0.121273 -0.040077999 1.0736001 1380624
0.12335 -0.040077999 1.0736001 1249294
0.12577701 -0.04019 1.0766 1118225
0.127859 -0.04019 1.0766 1249300
0.129942 -0.04019 1.0766 1379349
0.132392 -0.040302001 1.0796 1379862
0.13448 -0.040302001 1.0796 1379863
0.13656799 -0.040302001 1.0796 1248792
0.138657 -0.040302001 1.0796 1118488
0.140745 -0.040302001 1.0796 1118488
0.143362 -0.040452 1.0836 1118743
0.145458 -0.040452 1.0836 1183510
0.147554 -0.040452 1.0836 1315094
0.14964999 -0.040452 1.0836 1315863
0.151746 -0.040452 1.0836 1315863
0.153842 -0.040452 1.0836 1315863
0.155938 -0.040452 1.0836 1315094
0.15745001 -0.040302001 1.0796 1314582
0.16012999 -0.040452 1.0836 1314837
0.16222601 -0.040452 1.0836 1511700
0.164322 -0.040452 1.0836 1708309
0.166417 -0.040452 1.0836 1643031
0.168513 -0.040452 1.0836 1642521
0.170609 -0.040452 1.0836 1576987
0.17270499 -0.040452 1.0836 1576985
0.17480101 -0.040452 1.0836 1576728
0.176897 -0.040452 1.0836 1577238
0.178993 -0.040452 1.0836 1577235
0.181089 -0.040452 1.0836 1577236
0.183185 -0.040452 1.0836 1642774
0.185794 -0.040564001 1.0865999 1709077
0.187896 -0.040564001 1.0865999 1708821
0.190697 -0.040713001 1.0906 1708823
0.19280601 -0.040713001 1.0906 1708312
0.194916 -0.040713001 1.0906 1708569
0.197025 -0.040713001 1.0906 1708825
0.198404 -0.040564001 1.0865999 1708571
0.200506 -0.040564001 1.0865999 1839645
0.202608 -0.040564001 1.0865999 1970973
0.20471001 -0.040564001 1.0865999 1840413
0.206811 -0.040564001 1.0865999 1774614
0.208913 -0.040564001 1.0865999 1708815
0.21179201 -0.040713001 1.0906 1709073
0.213901 -0.040713001 1.0906 1840404
0.21660499 -0.040824998 1.0936 1972500
0.21872 -0.040824998 1.0936 1972244
0.221441 -0.040936999 1.0966001 1972502
0.224418 -0.041094001 1.1008 1841944
0.226548 -0.041094001 1.1008 1710616
0.228677 -0.041094001 1.1008 1775128
0.23080599 -0.041094001 1.1008 1840666
0.232935 -0.041094001 1.1008 1906717
0.233527 -0.040824998 1.0936 1971741
0.23628899 -0.040936999 1.0966001 1971741
0.23841 -0.040936999 1.0966001 1971741
0.23987301 -0.040824998 1.0936 1906205
0.241988 -0.040824998 1.0936 1840672
0.244103 -0.040824998 1.0936 1710116
0.24621899 -0.040824998 1.0936 1644576
0.249015 -0.040936999 1.0966001 1644573
0.251136 -0.040936999 1.0966001 1710114
0.25256401 -0.040824998 1.0936 1840680
0.25537801 -0.040936999 1.0966001 2037284
0.25749901 -0.040936999 1.0966001 2037280
0.25962099 -0.040936999 1.0966001 2037281
0.26274401 -0.041094001 1.1008 2037281
0.264873 -0.041094001 1.1008 2102820
0.267003 -0.041094001 1.1008 2036775
0.26913199 -0.041094001 1.1008 2037792
0.27200001 -0.041205999 1.1038001 1973017
0.27339 -0.041094001 1.1008 1972509
0.27551901 -0.041094001 1.1008 1841185
0.27764899 -0.041094001 1.1008 1710116
0.27871001 -0.040936999 1.0966001 1775911
0.28083101 -0.040936999 1.0966001 1906982
0.28295201 -0.040936999 1.0966001 2038309
0.286165 -0.041094001 1.1008 2234659
0.288295 -0.041094001 1.1008 2234657
0.29042399 -0.041094001 1.1008 2235166
0.29255301 -0.041094001 1.1008 2039068
0.29548499 -0.041205999 1.1038001 1907998
0.29869899 -0.041354999 1.1078 2038560
0.30084199 -0.041354999 1.1078 2234914
0.302984 -0.041354999 1.1078 2497060
0.30512699 -0.041354999 1.1078 2760225
0.30810201 -0.041467 1.1108 2563613
0.310251 -0.041467 1.1108 2366752
0.312399 -0.041467 1.1108 2366498
0.31454799 -0.041467 1.1108 2366248
0.31669599 -0.041467 1.1108 2431790
0.318845 -0.041467 1.1108 2562860
0.32099301 -0.041467 1.1108 2694698
0.331781 -0.041205999 1.1038001 2497839
0.33512601 -0.041354999 1.1078 2497581
0.33726799 -0.041354999 1.1078 2497324
0.33941099 -0.041354999 1.1078 2563374
0.34155399 -0.041354999 1.1078 2563375
0.34462699 -0.041467 1.1108 2563626
0.34677601 -0.041467 1.1108 2563621
0.34892401 -0.041467 1.1108 2563623
0.352337 -0.041616 1.1148 2498089
0.35449299 -0.041616 1.1148 2498598
0.35664999 -0.041616 1.1148 2499107
0.35880601 -0.041616 1.1148 2565158
0.360962 -0.041616 1.1148 2500137
0.36311901 -0.041616 1.1148 2434089
0.365275 -0.041616 1.1148 2302505
0.36743101 -0.041616 1.1148 2236970
0.369587 -0.041616 1.1148 2629931
0.37174401 -0.041616 1.1148 3023148
0.3739 -0.041616 1.1148 2565421
0.37605599 -0.041616 1.1148 2171694
0.37821299 -0.041616 1.1148 2301486
0.38036901 -0.041616 1.1148 2432818
0.57030898 -0.043265998 1.159 14471386
0.57106799 -0.043154001 1.156 14274268
0.573304 -0.043154001 1.156 14143702
0.57554001 -0.043154001 1.156 14142673
0.57777601 -0.043154001 1.156 14142414
0.57800502 -0.043005001 1.152 14076619
0.58023399 -0.043005001 1.152 14077132
0.578417 -0.042706002 1.1440001 14077134
0.58063 -0.042706002 1.1440001 14075326
0.58284301 -0.042706002 1.1440001 13218991
0.58505499 -0.042706002 1.1440001 12425111
0.58521497 -0.042557001 1.14 10652032
0.58741999 -0.042557001 1.14 8878723
0.589625 -0.042557001 1.14 9009287
0.59016901 -0.042438 1.1368001 9141132
0.59028298 -0.042288002 1.1328 9010834
0.59247398 -0.042288002 1.1328 8879758
0.592565 -0.042139001 1.1288 8945802
0.59474897 -0.042139001 1.1288 9011335
0.59693199 -0.042139001 1.1288 8284804
0.59911603 -0.042139001 1.1288 7562345
-0.031422999 -0.036862001 1.0414 8944486
-0.029494001 -0.036968 1.0444 5719103
-0.027473999 -0.036968 1.0444 2436128
-0.025452999 -0.036968 1.0444 1573378
-0.023433 -0.036968 1.0444 787205
-0.021475 -0.037074 1.0474 590345
-0.019505 -0.037181001 1.0504 459273
-0.017472999 -0.037181001 1.0504 525065
-0.015441 -0.037181001 1.0504 591113
-0.013409 -0.037181001 1.0504 853514
-0.011378 -0.037181001 1.0504 1116684
-0.0093459999 -0.037181001 1.0504 1051406
-0.0073139998 -0.037181001 1.0504 1052177
-0.0052820002 -0.037181001 1.0504 1116949
-0.0032510001 -0.037181001 1.0504 1182235
-0.001223 -0.037287001 1.0534 1182242
0.00081499998 -0.037287001 1.0534 1248027
0.0028530001 -0.037287001 1.0534 1182229
0.00489 -0.037287001 1.0534 1182481
0.0069280001 -0.037287001 1.0534 1182734
0.0089649996 -0.037287001 1.0534 1182990
0.011003 -0.037287001 1.0534 1182478
0.01304 -0.037287001 1.0534 1182481
0.015078 -0.037287001 1.0534 1182485
0.017115001 -0.037287001 1.0534 1182482
0.019224999 -0.037427999 1.0574 1182735
0.021271 -0.037427999 1.0574 1182990
0.023316 -0.037427999 1.0574 1248014
0.025361 -0.037427999 1.0574 1313552
0.027406 -0.037427999 1.0574 1116947
0.029452 -0.037427999 1.0574 920340
0.031497002 -0.037427999 1.0574 1051413
0.033542 -0.037427999 1.0574 1182225
0.035588 -0.037427999 1.0574 1117198
0.037633002 -0.037427999 1.0574 1117709
0.039678 -0.037427999 1.0574 1051917
0.041723002 -0.037427999 1.0574 1051661
0.043892998 -0.037533998 1.0604 855309
0.045944002 -0.037533998 1.0604 723985
0.047995001 -0.037533998 1.0604 986133
0.050046001 -0.037533998 1.0604 1248273
0.052097 -0.037533998 1.0604 1182990
0.054148 -0.037533998 1.0604 1117967
0.056198999 -0.037533998 1.0604 1052432
0.058249999 -0.037533998 1.0604 987151
0.060300998 -0.037533998 1.0604 1117455
0.062541001 -0.037648 1.0635999 1248526
0.064598002 -0.037648 1.0635999 1182990
0.066655003 -0.037648 1.0635999 1183249
0.068712004 -0.037648 1.0635999 1182228
0.070770003 -0.037648 1.0635999 1182225
0.072826996 -0.037648 1.0635999 1116686
0.074883997 -0.037648 1.0635999 1117198
0.076940998 -0.037648 1.0635999 1182735
0.078998998 -0.037648 1.0635999 1248528
0.081284001 -0.037753999 1.0666 1182993
0.083347 -0.037753999 1.0666 1117713
0.085651003 -0.037859999 1.0696 1248785
0.087719999 -0.037859999 1.0696 1379857
0.089787997 -0.037859999 1.0696 1379857
0.091857001 -0.037859999 1.0696 1315345
0.093925998 -0.037859999 1.0696 1249042
0.095995001 -0.037859999 1.0696 1248785
0.098063998 -0.037859999 1.0696 1183249
0.100133 -0.037859999 1.0696 1182735
0.102202 -0.037859999 1.0696 1117709
0.10466 -0.038001999 1.0736001 1052687
0.106339 -0.037859999 1.0696 1052433
0.108814 -0.038001999 1.0736001 1052177
0.11089 -0.038001999 1.0736001 1445650
0.112967 -0.038001999 1.0736001 1839378
0.115043 -0.038001999 1.0736001 1576978
0.11712 -0.038001999 1.0736001 1380371
0.119197 -0.038001999 1.0736001 1380628
0.121612 -0.038107999 1.0766 1446416
0.123694 -0.038107999 1.0766 1380621
0.12577701 -0.038107999 1.0766 1315599
0.127859 -0.038107999 1.0766 1380370
0.129942 -0.038107999 1.0766 1444877
0.132392 -0.038214002 1.0796 1445385
0.13448 -0.038214002 1.0796 1445393
0.13656799 -0.038214002 1.0796 1314586
0.138657 -0.038214002 1.0796 1184026
0.141266 -0.038355999 1.0836 1249562
0.143362 -0.038355999 1.0836 1380890
0.145458 -0.038355999 1.0836 1380890
0.147554 -0.038355999 1.0836 1446426
0.14964999 -0.038355999 1.0836 1446170
0.151746 -0.038355999 1.0836 1445914
0.153842 -0.038355999 1.0836 1445914
0.155938 -0.038355999 1.0836 1445910
0.158034 -0.038355999 1.0836 1445907
0.16012999 -0.038355999 1.0836 1511955
0.16222601 -0.038355999 1.0836 1577236
0.164322 -0.038355999 1.0836 1642772
0.166417 -0.038355999 1.0836 1642772
0.168513 -0.038355999 1.0836 1642776
0.170609 -0.038355999 1.0836 1642780
0.17318299 -0.038462002 1.0865999 1642780
0.175285 -0.038462002 1.0865999 1773852
0.176897 -0.038355999 1.0836 1904920
0.178993 -0.038355999 1.0836 1773845
0.181089 -0.038355999 1.0836 1709078
0.18369199 -0.038462002 1.0865999 1708823
0.185794 -0.038462002 1.0865999 1775382
0.188587 -0.038603 1.0906 1708822
0.190697 -0.038603 1.0906 1709078
0.19333699 -0.038710002 1.0936 1709079
0.195452 -0.038710002 1.0936 1709592
0.197025 -0.038603 1.0906 1774873
0.199682 -0.038710002 1.0936 1840411
0.201244 -0.038603 1.0906 1839902
0.203354 -0.038603 1.0906 1905950
0.20546301 -0.038603 1.0906 1774879
0.207573 -0.038603 1.0906 1709593
0.209682 -0.038603 1.0906 1775124
0.21179201 -0.038603 1.0906 1841684
0.214489 -0.038710002 1.0936 1841428
0.21660499 -0.038710002 1.0936 1842452
0.21932 -0.038816001 1.0966001 1841940
0.221441 -0.038816001 1.0966001 1841943
0.224418 -0.038964 1.1008 1776410
0.226548 -0.038964 1.1008 1710618
0.22930001 -0.039071001 1.1038001 1972250
0.23080599 -0.038964 1.1008 2168861
0.23204599 -0.038816001 1.0966001 2103329
0.23416799 -0.038816001 1.0966001 2037281
0.23628899 -0.038816001 1.0966001 2037537
0.23841 -0.038816001 1.0966001 2037793
0.23987301 -0.038710002 1.0936 1972002
0.242652 -0.038816001 1.0966001 1906216
0.244773 -0.038816001 1.0966001 1906734
0.246894 -0.038816001 1.0966001 1907240
0.249015 -0.038816001 1.0966001 1841186
0.25209799 -0.038964 1.1008 1841449
0.25325701 -0.038816001 1.0966001 1972528
0.25537801 -0.038816001 1.0966001 2103593
0.25749901 -0.038816001 1.0966001 2037794
0.26061499 -0.038964 1.1008 2037794
0.26274401 -0.038964 1.1008 2037282
0.264873 -0.038964 1.1008 2102823
0.267003 -0.038964 1.1008 2168365
0.26913199 -0.038964 1.1008 2233893
0.27298599 -0.039212 1.1078 2234141
0.27512899 -0.039212 1.1078 2234658
0.27551901 -0.038964 1.1008 2037799
0.27764899 -0.038964 1.1008 1841194
0.27871001 -0.038816001 1.0966001 1906989
0.28083101 -0.038816001 1.0966001 1972779
0.28403601 -0.038964 1.1008 2038313
0.29042399 -0.038964 1.1008 2300698
0.29255301 -0.038964 1.1008 2104342
0.29869899 -0.039212 1.1078 2103844
0.30084199 -0.039212 1.1078 2234917
0.302984 -0.039212 1.1078 2300454
0.305953 -0.039317999 1.1108 2367011
0.30810201 -0.039317999 1.1108 2366753
0.310251 -0.039317999 1.1108 2366754
0.312399 -0.039317999 1.1108 2366244
0.31454799 -0.039317999 1.1108 2366250
0.31669599 -0.039317999 1.1108 2366257
0.31999299 -0.03946 1.1148 2366511
0.32214901 -0.03946 1.1148 2366765
0.32964501 -0.039071001 1.1038001 2563375
0.331781 -0.039071001 1.1038001 2497586
0.33391601 -0.039071001 1.1038001 2497327
0.33726799 -0.039212 1.1078 2497581
0.34033 -0.039317999 1.1108 2563629
0.34247899 -0.039317999 1.1108 2694701
0.34462699 -0.039317999 1.1108 2825771
0.34677601 -0.039317999 1.1108 2694697
0.35018101 -0.03946 1.1148 2563881
0.352337 -0.03946 1.1148 2498601
0.35449299 -0.03946 1.1148 2498855
0.35664999 -0.03946 1.1148 2434086
0.35880601 -0.03946 1.1148 2369063
0.360962 -0.03946 1.1148 2500136
0.36442199 -0.039602 1.1188 2631209
0.365275 -0.03946 1.1148 2565674
0.36743101 -0.03946 1.1148 2500138
0.369587 -0.03946 1.1148 2695467
0.37174401 -0.03946 1.1148 2892077
0.3739 -0.03946 1.1148 2630191
0.37605599 -0.03946 1.1148 2433839
0.37821299 -0.03946 1.1148 2499119
0.38036901 -0.03946 1.1148 2564661
0.382525 -0.03946 1.1148 2630204
0.57030898 -0.041025002 1.159 13420253
0.57106799 -0.040918 1.156 13881058
0.573304 -0.040918 1.156 14340825
0.57554001 -0.040918 1.156 14208720
0.57777601 -0.040918 1.156 14076877
0.57800502 -0.040777002 1.152 14142667
0.58023399 -0.040777002 1.152 14208461
0.58043897 -0.040635001 1.148 14010576
0.58063 -0.040493999 1.1440001 13812155
0.58284301 -0.040493999 1.1440001 12626087
0.58505499 -0.040493999 1.1440001 11503763
0.58726799 -0.040493999 1.1440001 10124415
0.58741999 -0.040352002 1.14 8745860
0.589625 -0.040352002 1.14 8878730
0.59016901 -0.040238999 1.1368001 9010832
0.59236699 -0.040238999 1.1368001 8945303
0.59247398 -0.040096998 1.1328 8945297
0.592565 -0.039956 1.1288 9011340
0.596856 -0.040096998 1.1328 9078148
0.59693199 -0.039956 1.1288 8023421
0.59911603 -0.039956 1.1288 6905695
-0.031422999 -0.034848001 1.0414 10387562
-0.029494001 -0.034947999 1.0444 6639158
-0.027473999 -0.034947999 1.0444 2957084
-0.025452999 -0.034947999 1.0444 1638657
-0.023500999 -0.035048001 1.0474 328452
-0.021475 -0.035048001 1.0474 393991
-0.019505 -0.035149001 1.0504 525064
-0.017472999 -0.035149001 1.0504 525065
-0.015441 -0.035149001 1.0504 525322
-0.013448 -0.035248999 1.0534 787724
-0.011378 -0.035149001 1.0504 1116429
-0.0093729999 -0.035248999 1.0534 1051662
-0.0073350002 -0.035248999 1.0534 986641
-0.0052979998 -0.035248999 1.0534 1117461
-0.0032599999 -0.035248999 1.0534 1248280
-0.001223 -0.035248999 1.0534 1313820
0.00081499998 -0.035248999 1.0534 1379095
0.0028629999 -0.035383001 1.0574 1247762
0.0049089999 -0.035383001 1.0574 1182479
0.0069539999 -0.035383001 1.0574 1182731
0.0089990003 -0.035383001 1.0574 1248268
0.011044 -0.035383001 1.0574 1248270
0.01309 -0.035383001 1.0574 1313809
0.015135 -0.035383001 1.0574 1248533
0.01718 -0.035383001 1.0574 1248274
0.019224999 -0.035383001 1.0574 1248783
0.021271 -0.035383001 1.0574 1248527
0.023316 -0.035383001 1.0574 1248271
0.025361 -0.035383001 1.0574 1248272
0.027406 -0.035383001 1.0574 1051665
0.029534999 -0.035482999 1.0604 920593
0.031585999 -0.035482999 1.0604 1117201
0.033636998 -0.035482999 1.0604 1313808
0.035689 -0.035482999 1.0604 1314319
0.03774 -0.035482999 1.0604 1314319
0.039790999 -0.035482999 1.0604 1248270
0.041841999 -0.035482999 1.0604 1248526
0.043892998 -0.035482999 1.0604 921102
0.045944002 -0.035482999 1.0604 593168
0.047995001 -0.035482999 1.0604 986386
0.050046001 -0.035482999 1.0604 1379600
0.052097 -0.035482999 1.0604 1183246
0.054311 -0.03559 1.0635999 1052431
0.056368999 -0.03559 1.0635999 1052688
0.058426 -0.03559 1.0635999 1052176
0.060483001 -0.03559 1.0635999 1182992
0.062541001 -0.03559 1.0635999 1314063
0.064598002 -0.03559 1.0635999 1314063
0.066655003 -0.03559 1.0635999 1313808
0.068712004 -0.03559 1.0635999 1248017
0.070770003 -0.03559 1.0635999 1247760
0.072826996 -0.03559 1.0635999 1182223
0.075094998 -0.035691001 1.0666 1116944
0.077157997 -0.035691001 1.0666 1248786
0.079221003 -0.035691001 1.0666 1379857
0.081284001 -0.035691001 1.0666 1379857
0.083581999 -0.035790998 1.0696 1379857
0.085651003 -0.035790998 1.0696 1642002
0.087719999 -0.035790998 1.0696 1904144
0.089787997 -0.035790998 1.0696 1641999
0.091857001 -0.035790998 1.0696 1380368
0.093925998 -0.035790998 1.0696 1380370
0.095995001 -0.035790998 1.0696 1380115
0.098063998 -0.035790998 1.0696 1380884
0.100507 -0.035925001 1.0736001 1380117
0.102202 -0.035790998 1.0696 1249047
0.10466 -0.035925001 1.0736001 1117972
0.106737 -0.035925001 1.0736001 1117713
0.108814 -0.035925001 1.0736001 1183505
0.11089 -0.035925001 1.0736001 1773842
0.112967 -0.035925001 1.0736001 2363668
0.115043 -0.035925001 1.0736001 1839126
0.11712 -0.035925001 1.0736001 1380373
0.11953 -0.036024999 1.0766 1446164
0.121612 -0.036024999 1.0766 1577234
0.123694 -0.036024999 1.0766 1511696
0.126127 -0.036125999 1.0796 1511955
0.128216 -0.036125999 1.0796 1511446
0.13030399 -0.036125999 1.0796 1511444
0.132882 -0.036260001 1.0836 1511442
0.134978 -0.036260001 1.0836 1511446
0.13707399 -0.036260001 1.0836 1380634
0.13917001 -0.036260001 1.0836 1315097
0.141266 -0.036260001 1.0836 1446167
0.143362 -0.036260001 1.0836 1642777
0.145458 -0.036260001 1.0836 1642522
0.147554 -0.036260001 1.0836 1642520
0.14964999 -0.036260001 1.0836 1642773
0.151746 -0.036260001 1.0836 1642777
0.153842 -0.036260001 1.0836 1642782
0.15637 -0.036359999 1.0865999 1642775
0.158034 -0.036260001 1.0836 1643024
0.16012999 -0.036260001 1.0836 1708561
0.16267499 -0.036359999 1.0865999 1642769
0.164776 -0.036359999 1.0865999 1577230
0.166417 -0.036260001 1.0836 1643020
0.16898 -0.036359999 1.0865999 1708561
0.170609 -0.036260001 1.0836 1708823
0.17318299 -0.036359999 1.0865999 1708826
0.17592999 -0.036494002 1.0906 1970973
0.177387 -0.036359999 1.0865999 2232861
0.179489 -0.036359999 1.0865999 2036252
0.18159001 -0.036359999 1.0865999 1839643
0.18369199 -0.036359999 1.0865999 1839898
0.186478 -0.036494002 1.0906 1839897
0.188587 -0.036494002 1.0906 1774359
0.190697 -0.036494002 1.0906 1709336
0.19333699 -0.036594 1.0936 1709592
0.195452 -0.036594 1.0936 1709594
0.197567 -0.036594 1.0936 1840925
0.199682 -0.036594 1.0936 1971489
0.20179801 -0.036594 1.0936 1905189
0.203913 -0.036594 1.0936 1839906
0.20546301 -0.036494002 1.0906 1774368
0.20814399 -0.036594 1.0936 1709851
0.21025901 -0.036594 1.0936 1841175
0.212374 -0.036594 1.0936 2037783
0.214489 -0.036594 1.0936 1906711
0.21660499 -0.036594 1.0936 1776151
0.21932 -0.036695 1.0966001 1776664
0.222289 -0.036835 1.1008 1776409
0.224418 -0.036835 1.1008 1776410
0.226548 -0.036835 1.1008 1776411
0.22930001 -0.036936 1.1038001 2169627
0.231435 -0.036936 1.1038001 2562589
0.23356999 -0.036936 1.1038001 2300446
0.23416799 -0.036695 1.0966001 2103583
0.237194 -0.036835 1.1008 2103583
0.23932301 -0.036835 1.1008 2103585
0.24145199 -0.036835 1.1008 2038050
0.243581 -0.036835 1.1008 2037796
0.24571 -0.036835 1.1008 2103333
0.246894 -0.036695 1.0966001 2169122
0.24996901 -0.036835 1.1008 2103071
0.25209799 -0.036835 1.1008 2037540
0.25422701 -0.036835 1.1008 2103081
0.25635701 -0.036835 1.1008 2169125
0.258486 -0.036835 1.1008 2103329
0.261325 -0.036936 1.1038001 2103073
0.26346001 -0.036936 1.1038001 2103073
0.26655799 -0.037069999 1.1078 2102818
0.2687 -0.037069999 1.1078 2232867
0.271577 -0.03717 1.1108 2429985
0.273725 -0.03717 1.1108 2495519
0.27587399 -0.03717 1.1108 2561570
0.277271 -0.037069999 1.1078 2299941
0.279414 -0.037069999 1.1078 2038309
0.28155699 -0.037069999 1.1078 2039078
0.282675 -0.036936 1.1038001 2038565
0.28481001 -0.036936 1.1038001 2038308
0.305953 -0.03717 1.1108 1973031
0.30921099 -0.037303999 1.1148 2169636
0.31136799 -0.037303999 1.1148 2366756
0.31352401 -0.037303999 1.1148 2365988
0.31568 -0.037303999 1.1148 2366758
0.31669599 -0.03717 1.1108 2236457
0.31999299 -0.037303999 1.1148 2170409
0.32214901 -0.037303999 1.1148 2039082
0.33083999 -0.037069999 1.1078 2563371
0.330879 -0.036835 1.1008 2563117
0.33300799 -0.036835 1.1008 2563114
0.338182 -0.03717 1.1108 2563623
0.33941099 -0.037069999 1.1078 2563368
0.34155399 -0.037069999 1.1078 2824746
0.34369701 -0.037069999 1.1078 3087914
0.34802499 -0.037303999 1.1148 2826538
0.35018101 -0.037303999 1.1148 2630186
0.35360101 -0.037438001 1.1188 2564906
0.35449299 -0.037303999 1.1148 2499625
0.35664999 -0.037303999 1.1148 2369576
0.360093 -0.037438001 1.1188 2237991
0.362257 -0.037438001 1.1188 2500134
0.36442199 -0.037438001 1.1188 2827303
0.366586 -0.037438001 1.1188 2760999
0.36743101 -0.037303999 1.1148 2761258
0.37091401 -0.037438001 1.1188 2761261
0.37174401 -0.037303999 1.1148 2761005
0.3739 -0.037303999 1.1148 2695469
0.377406 -0.037438001 1.1188 2695470
0.37821299 -0.037303999 1.1148 2696239
0.38036901 -0.037303999 1.1148 2761265
0.384927 -0.037537999 1.1217999 2695988
0.387097 -0.037537999 1.1217999 2630699
0.57030898 -0.038782999 1.159 12367309
0.57106799 -0.038681999 1.156 13487829
0.573304 -0.038681999 1.156 14601940
0.57554001 -0.038681999 1.156 14275284
0.57777601 -0.038681999 1.156 14012113
0.57800502 -0.038548999 1.152 14143183
0.58023399 -0.038548999 1.152 14339533
0.58043897 -0.038415 1.148 13944523
0.58266002 -0.038415 1.148 13612468
0.58284301 -0.038281001 1.1440001 12099485
0.58505499 -0.038281001 1.1440001 10584720
0.58726799 -0.038281001 1.1440001 9596035
0.589481 -0.038281001 1.1440001 8681092
0.589625 -0.038146999 1.14 8814470
0.59183002 -0.038146999 1.14 8945292
0.59236699 -0.038040001 1.1368001 8945810
0.59456599 -0.038040001 1.1368001 9011343
0.59466499 -0.037905999 1.1328 9076876
0.596856 -0.037905999 1.1328 9206909
0.59693199 -0.037772 1.1288 7762031
0.59911603 -0.037772 1.1288 6312013
-0.025452999 -0.032928001 1.0444 1638657
-0.023500999 -0.033022001 1.0474 328707
-0.021536 -0.033117 1.0504 393989
-0.019505 -0.033117 1.0504 525063
-0.017523 -0.033211999 1.0534 459529
-0.015485 -0.033211999 1.0534 393995
-0.013448 -0.033211999 1.0534 656398
-0.01141 -0.033211999 1.0534 919822
-0.0093729999 -0.033211999 1.0534 920591
-0.0073350002 -0.033211999 1.0534 986642
-0.0052979998 -0.033211999 1.0534 1051925
-0.0032599999 -0.033211999 1.0534 1117205
-0.001223 -0.033211999 1.0534 1379350
0.000818 -0.033337999 1.0574 1642003
0.0028629999 -0.033337999 1.0574 1445136
0.0049089999 -0.033337999 1.0574 1248524
0.0069539999 -0.033337999 1.0574 1182985
0.009025 -0.033431999 1.0604 1117451
0.011044 -0.033337999 1.0574 1182734
0.01309 -0.033337999 1.0574 1313809
0.015135 -0.033337999 1.0574 1182997
0.01718 -0.033337999 1.0574 1051154
0.019224999 -0.033337999 1.0574 1182735
0.021271 -0.033337999 1.0574 1248527
0.023382001 -0.033431999 1.0604 1248528
0.025433 -0.033431999 1.0604 1183248
0.027484 -0.033431999 1.0604 1117712
0.029534999 -0.033431999 1.0604 1117967
0.031585999 -0.033431999 1.0604 1182734
0.033636998 -0.033431999 1.0604 1314319
0.035689 -0.033431999 1.0604 1314321
0.03774 -0.033431999 1.0604 1314320
0.039790999 -0.033431999 1.0604 1314320
0.041841999 -0.033431999 1.0604 1314320
0.043892998 -0.033431999 1.0604 1052176
0.045944002 -0.033431999 1.0604 790031
0.048140001 -0.033532999 1.0635999 986383
0.050197002 -0.033532999 1.0635999 1182991
0.052253999 -0.033532999 1.0635999 1117711
0.054311 -0.033532999 1.0635999 987152
0.056368999 -0.033532999 1.0635999 1052689
0.058426 -0.033532999 1.0635999 1052177
0.060483001 -0.033532999 1.0635999 1117713
0.062541001 -0.033532999 1.0635999 1183248
0.064598002 -0.033532999 1.0635999 1248528
0.066655003 -0.033532999 1.0635999 1313807
0.068712004 -0.033532999 1.0635999 1313807
0.070969 -0.033628002 1.0666 1314319
0.073031999 -0.033628002 1.0666 1182480
0.075094998 -0.033628002 1.0666 1051411
0.077157997 -0.033628002 1.0666 1183254
0.079221003 -0.033628002 1.0666 1379859
0.081284001 -0.033628002 1.0666 1249041
0.083581999 -0.033721998 1.0696 1183762
0.085651003 -0.033721998 1.0696 1445908
0.087719999 -0.033721998 1.0696 1709072
0.089787997 -0.033721998 1.0696 1445901
0.091857001 -0.033721998 1.0696 1249295
0.094277002 -0.033849001 1.0736001 1314578
0.095995001 -0.033721998 1.0696 1380116
0.098430999 -0.033849001 1.0736001 1314583
0.100507 -0.033849001 1.0736001 1249308
0.102584 -0.033849001 1.0736001 1183777
0.10466 -0.033849001 1.0736001 1118489
0.106737 -0.033849001 1.0736001 1183762
0.108814 -0.033849001 1.0736001 1314834
0.11089 -0.033849001 1.0736001 1642514
0.112967 -0.033849001 1.0736001 1904918
0.115043 -0.033849001 1.0736001 1642778
0.117447 -0.033943001 1.0766 1381399
0.11953 -0.033943001 1.0766 1381396
0.121951 -0.034038 1.0796 1447188
0.124039 -0.034038 1.0796 1512212
0.12659501 -0.034164 1.0836 1578007
0.128691 -0.034164 1.0836 1446170
0.130787 -0.034164 1.0836 1380890
0.13325 -0.034258001 1.0865999 1380891
0.135352 -0.034258001 1.0865999 1446683
0.13707399 -0.034164 1.0836 1381403
0.13917001 -0.034164 1.0836 1381656
0.14165699 -0.034258001 1.0865999 1512213
0.143759 -0.034258001 1.0865999 1708824
0.145861 -0.034258001 1.0865999 1839131
0.147963 -0.034258001 1.0865999 2035478
0.15006401 -0.034258001 1.0865999 1838865
0.15216599 -0.034258001 1.0865999 1707545
0.154268 -0.034258001 1.0865999 1708322
0.15637 -0.034258001 1.0865999 1708824
0.158034 -0.034164 1.0836 1708814
0.16012999 -0.034164 1.0836 1709070
0.16267499 -0.034258001 1.0865999 1577999
0.164322 -0.034164 1.0836 1512457
0.166878 -0.034258001 1.0865999 1577988
0.16898 -0.034258001 1.0865999 1644043
0.171082 -0.034258001 1.0865999 1644050
0.17318299 -0.034258001 1.0865999 1709592
0.175285 -0.034258001 1.0865999 1839903
0.176897 -0.034164 1.0836 1970977
0.178993 -0.034164 1.0836 1905188
0.18159001 -0.034258001 1.0865999 1905185
0.184368 -0.034384001 1.0906 1840158
0.186478 -0.034384001 1.0906 1776155
0.188587 -0.034384001 1.0906 1644313
0.190697 -0.034384001 1.0906 1578777
0.19280601 -0.034384001 1.0906 1644570
0.195452 -0.034479 1.0936 1710621
0.197567 -0.034479 1.0936 1841185
0.199682 -0.034479 1.0936 1905958
0.202351 -0.034573998 1.0966001 1840684
0.203913 -0.034479 1.0936 1841446
0.206028 -0.034479 1.0936 1710369
0.20814399 -0.034479 1.0936 1579806
0.21025901 -0.034479 1.0936 1710875
0.212374 -0.034479 1.0936 1907995
0.214489 -0.034479 1.0936 1841947
0.21660499 -0.034479 1.0936 1841691
0.21932 -0.034573998 1.0966001 1841948
0.221441 -0.034573998 1.0966001 1841947
0.224418 -0.034706 1.1008 1842203
0.226548 -0.034706 1.1008 1842460
0.22930001 -0.034800999 1.1038001 2104093
0.231435 -0.034800999 1.1038001 2365980
0.23356999 -0.034800999 1.1038001 2169372
0.235064 -0.034706 1.1008 2038557
0.23784 -0.034800999 1.1038001 2103838
0.23932301 -0.034706 1.1008 2169376
0.24145199 -0.034706 1.1008 2103843
0.243581 -0.034706 1.1008 2103840
0.24571 -0.034706 1.1008 2234909
0.24784 -0.034706 1.1008 2431773
0.24996901 -0.034706 1.1008 2300189
0.25209799 -0.034706 1.1008 2168607
0.25422701 -0.034706 1.1008 2168866
0.25635701 -0.034706 1.1008 2169121
0.258486 -0.034706 1.1008 2103073
0.261325 -0.034800999 1.1038001 2102817
0.264415 -0.034926999 1.1078 2103073
0.26728001 -0.035021 1.1108 2103069
0.26942801 -0.035021 1.1108 2168602
0.271577 -0.035021 1.1108 2300190
0.273725 -0.035021 1.1108 2299682
0.27587399 -0.035021 1.1108 2364706
0.27802199 -0.035021 1.1108 2169123
0.279414 -0.034926999 1.1078 2039329
0.28155699 -0.034926999 1.1078 2039328
0.28369999 -0.034926999 1.1078 2039583
0.28481001 -0.034800999 1.1038001 2039583
0.30921099 -0.035147 1.1148 2235431
0.31136799 -0.035147 1.1148 2432293
0.31352401 -0.035147 1.1148 2300964
0.31568 -0.035147 1.1148 2236707
0.32528999 -0.035021 1.1108 2366758
0.32743901 -0.035021 1.1108 2497575
0.32958701 -0.035021 1.1108 2563368
0.331736 -0.035021 1.1108 2563624
0.330879 -0.034706 1.1008 2563368
0.33300799 -0.034706 1.1008 2563364
0.33605099 -0.034800999 1.1038001 2432289
0.33941099 -0.034926999 1.1078 2366756
0.34155399 -0.034926999 1.1078 2498088
0.34462699 -0.035021 1.1108 2695465
0.34677601 -0.035021 1.1108 2499371
0.35018101 -0.035147 1.1148 2368811
0.35360101 -0.035273999 1.1188 2303276
0.35449299 -0.035147 1.1148 2303275
0.35792899 -0.035273999 1.1188 2303275
0.36105901 -0.035367999 1.1217999 2303528
0.362257 -0.035273999 1.1188 2565157
0.365399 -0.035367999 1.1217999 2761509
0.367569 -0.035367999 1.1217999 2892069
0.36743101 -0.035147 1.1148 3023402
0.37190801 -0.035367999 1.1217999 2892336
0.37307799 -0.035273999 1.1188 2761262
0.3739 -0.035147 1.1148 2695468
0.378418 -0.035367999 1.1217999 2694958
0.38058701 -0.035367999 1.1217999 2761264
0.38173401 -0.035273999 1.1188 2761262
0.38389799 -0.035273999 1.1188 2696236
0.387097 -0.035367999 1.1217999 2565665
0.57002699 -0.036667001 1.163 8614068
0.57030898 -0.036541 1.159 9412798
0.57255 -0.036541 1.159 10989513
0.573304 -0.036446001 1.156 12568016
0.57554001 -0.036446001 1.156 13355480
0.57777601 -0.036446001 1.156 14208981
0.58001202 -0.036446001 1.156 14341331
0.58224797 -0.036446001 1.156 14538956
0.58246201 -0.036320001 1.152 13747398
0.58266002 -0.036194 1.148 13020333
0.58487999 -0.036194 1.148 11703700
0.58710098 -0.036194 1.148 10386573
0.58726799 -0.036068 1.1440001 9534599
0.589481 -0.036068 1.1440001 8682629
0.591694 -0.036068 1.1440001 8814211
0.59390599 -0.036068 1.1440001 8879496
0.59611899 -0.036068 1.1440001 9011342
0.59833199 -0.036068 1.1440001 9077389
0.60054499 -0.036068 1.1440001 8813964
0.60275698 -0.036068 1.1440001 8616822
0.60496998 -0.036068 1.1440001 7103841
0.60718298 -0.036068 1.1440001 5653051
-0.025452999 -0.030908 1.0444 1704193
-0.023500999 -0.030997001 1.0474 328450
-0.021536 -0.031084999 1.0504 459780
-0.01956 -0.031174 1.0534 590598
-0.017523 -0.031174 1.0534 393993
-0.015485 -0.031174 1.0534 262923
-0.013448 -0.031174 1.0534 459790
-0.01141 -0.031174 1.0534 723214
-0.0093729999 -0.031174 1.0534 855823
-0.0073350002 -0.031174 1.0534 986642
-0.0052979998 -0.031174 1.0534 986645
-0.0032599999 -0.031174 1.0534 1051670
-0.001223 -0.031174 1.0534 1510422
0.000818 -0.031291999 1.0574 1969683
0.0028629999 -0.031291999 1.0574 1642512
0.0049089999 -0.031291999 1.0574 1379598
0.0069539999 -0.031291999 1.0574 1183244
0.009025 -0.031381 1.0604 986381
0.011076 -0.031381 1.0604 1117454
0.013127 -0.031381 1.0604 1314064
0.015178 -0.031381 1.0604 1117458
0.017229 -0.031381 1.0604 920592
0.019224999 -0.031291999 1.0574 1116943
0.021330999 -0.031381 1.0604 1313809
0.023382001 -0.031381 1.0604 1248787
0.025433 -0.031381 1.0604 1183250
0.027484 -0.031381 1.0604 1248784
0.029534999 -0.031381 1.0604 1314319
0.031585999 -0.031381 1.0604 1313806
0.033636998 -0.031381 1.0604 1380111
0.035689 -0.031381 1.0604 1380369
0.03774 -0.031381 1.0604 1380113
0.039790999 -0.031381 1.0604 1379857
0.041841999 -0.031381 1.0604 1379856
0.043892998 -0.031381 1.0604 1183248
0.046082001 -0.031475998 1.0635999 1052176
0.048140001 -0.031475998 1.0635999 1052688
0.050197002 -0.031475998 1.0635999 1052432
0.052253999 -0.031475998 1.0635999 986896
0.054311 -0.031475998 1.0635999 987158
0.056368999 -0.031475998 1.0635999 1052956
0.058591001 -0.031564999 1.0666 1118484
0.060653999 -0.031564999 1.0666 1118477
0.062541001 -0.031475998 1.0635999 1118222
0.064779997 -0.031564999 1.0666 1249296
0.066843003 -0.031564999 1.0666 1379856
0.068906002 -0.031564999 1.0666 1379856
0.070969 -0.031564999 1.0666 1379598
0.073031999 -0.031564999 1.0666 1182732
0.075094998 -0.031564999 1.0666 986383
0.077157997 -0.031564999 1.0666 1183249
0.079221003 -0.031564999 1.0666 1380110
0.081513003 -0.031654 1.0696 1183756
0.083581999 -0.031654 1.0696 1052687
0.085651003 -0.031654 1.0696 1249555
0.087719999 -0.031654 1.0696 1511697
0.090124004 -0.031771999 1.0736001 1315087
0.092201002 -0.031771999 1.0736001 1183764
0.094277002 -0.031771999 1.0736001 1249049
0.096354 -0.031771999 1.0736001 1380120
0.098430999 -0.031771999 1.0736001 1248280
0.100507 -0.031771999 1.0736001 1183515
0.102584 -0.031771999 1.0736001 1118493
0.10466 -0.031771999 1.0736001 1118488
0.106737 -0.031771999 1.0736001 1315091
0.108814 -0.031771999 1.0736001 1511443
0.11089 -0.031771999 1.0736001 1511443
0.113282 -0.031861 1.0766 1511701
0.115365 -0.031861 1.0766 1446167
0.117447 -0.031861 1.0766 1381398
0.119863 -0.031948999 1.0796 1381652
0.122403 -0.032067999 1.0836 1381396
0.124499 -0.032067999 1.0836 1512212
0.12659501 -0.032067999 1.0836 1709079
0.128691 -0.032067999 1.0836 1446170
0.13114899 -0.032157 1.0865999 1249817
0.13325 -0.032157 1.0865999 1315609
0.135352 -0.032157 1.0865999 1381655
0.137454 -0.032157 1.0865999 1382165
0.13955601 -0.032157 1.0865999 1447443
0.14165699 -0.032157 1.0865999 1578257
0.143759 -0.032157 1.0865999 1774360
0.145861 -0.032157 1.0865999 2101280
0.147963 -0.032157 1.0865999 2494233
0.15006401 -0.032157 1.0865999 2101011
0.15216599 -0.032157 1.0865999 1773846
0.154268 -0.032157 1.0865999 1774618
0.15637 -0.032157 1.0865999 1840406
0.158471 -0.032157 1.0865999 1775122
0.16057301 -0.032157 1.0865999 1709076
0.16267499 -0.032157 1.0865999 1578006
0.164776 -0.032157 1.0865999 1512721
0.166878 -0.032157 1.0865999 1578508
0.16898 -0.032157 1.0865999 1644305
0.171082 -0.032157 1.0865999 1644822
0.17318299 -0.032157 1.0865999 1709594
0.175285 -0.032157 1.0865999 1708574
0.177387 -0.032157 1.0865999 1708577
0.179489 -0.032157 1.0865999 1839653
0.18159001 -0.032157 1.0865999 1971232
0.184368 -0.032274999 1.0906 1840412
0.186478 -0.032274999 1.0906 1710364
0.188587 -0.032274999 1.0906 1579548
0.190697 -0.032274999 1.0906 1514013
0.19333699 -0.032364 1.0936 1645086
0.195452 -0.032364 1.0936 1776159
0.197567 -0.032364 1.0936 1841697
0.20023 -0.032453001 1.0966001 1907236
0.202351 -0.032453001 1.0966001 1841703
0.20447201 -0.032453001 1.0966001 1841699
0.20659401 -0.032453001 1.0966001 1645343
0.20814399 -0.032364 1.0936 1448989
0.21025901 -0.032364 1.0936 1645852
0.212374 -0.032364 1.0936 1842460
0.214489 -0.032364 1.0936 1842461
0.21660499 -0.032364 1.0936 1907997
0.21932 -0.032453001 1.0966001 1907997
0.221441 -0.032453001 1.0966001 1907996
0.22503 -0.032666001 1.1038001 1907996
0.226548 -0.032577001 1.1008 1973533
0.22930001 -0.032666001 1.1038001 2038558
0.23080599 -0.032577001 1.1008 2169629
0.232935 -0.032577001 1.1008 2038813
0.235064 -0.032577001 1.1008 1973530
0.237194 -0.032577001 1.1008 2105111
0.23932301 -0.032577001 1.1008 2234907
0.24145199 -0.032577001 1.1008 2169376
0.243581 -0.032577001 1.1008 2169376
0.24571 -0.032577001 1.1008 2431520
0.24784 -0.032577001 1.1008 2759199
0.24996901 -0.032577001 1.1008 2563614
0.25209799 -0.032577001 1.1008 2366494
0.25422701 -0.032577001 1.1008 2300702
0.25635701 -0.032577001 1.1008 2234911
0.25918999 -0.032666001 1.1038001 2168608
0.26298201 -0.032873001 1.1108 2103073
0.265131 -0.032873001 1.1108 2103331
0.26728001 -0.032873001 1.1108 2169121
0.26942801 -0.032873001 1.1108 2169631
0.27255499 -0.032991 1.1148 2169376
0.273725 -0.032873001 1.1108 2169377
0.27587399 -0.032873001 1.1108 2169377
0.27802199 -0.032873001 1.1108 2103841
0.28017101 -0.032873001 1.1108 2104866
0.28231901 -0.032873001 1.1108 2039587
0.28369999 -0.032784 1.1078 2039587
0.30489901 -0.032991 1.1148 2235175
0.305953 -0.032873001 1.1108 2169895
0.30921099 -0.032991 1.1148 2301735
0.31136799 -0.032991 1.1148 2497575
0.31464899 -0.03311 1.1188 2300968
0.31681299 -0.03311 1.1188 2105126
0.326462 -0.032991 1.1148 2497831
0.32743901 -0.032873001 1.1108 2563366
0.32958701 -0.032873001 1.1108 2563877
0.331736 -0.032873001 1.1108 2629158
0.331781 -0.032666001 1.1038001 2563624
0.33603299 -0.032873001 1.1108 2563622
0.33939901 -0.032991 1.1148 2367268
0.33941099 -0.032784 1.1078 2170663
0.34155399 -0.032784 1.1078 2236457
0.34369701 -0.032784 1.1078 2302506
0.34677601 -0.032873001 1.1108 2237995
0.35449299 -0.032991 1.1148 2106670
0.35792899 -0.03311 1.1188 2236973
0.36105901 -0.033197999 1.1217999 2434090
0.36322901 -0.033197999 1.1217999 2565160
0.365399 -0.033197999 1.1217999 2761255
0.367569 -0.033197999 1.1217999 3022374
0.36743101 -0.032991 1.1148 3285034
0.369587 -0.032991 1.1148 3022638
0.37174401 -0.032991 1.1148 2761261
0.3739 -0.032991 1.1148 2761260
0.377406 -0.03311 1.1188 2761261
0.37957001 -0.03311 1.1188 2761262
0.38275701 -0.033197999 1.1217999 2827054
0.384927 -0.033197999 1.1217999 2697007
0.387097 -0.033197999 1.1217999 2565670
0.389267 -0.033197999 1.1217999 2631198
0.57002699 -0.034418002 1.163 7018336
0.57030898 -0.034299001 1.159 6449538
0.57255 -0.034299001 1.159 8488869
0.573304 -0.03421 1.156 10593466
0.57554001 -0.03421 1.156 12500431
0.57777601 -0.03421 1.156 14403796
0.58001202 -0.03421 1.156 14539993
0.58224797 -0.03421 1.156 14733510
0.58246201 -0.034092002 1.152 13616308
0.58468997 -0.034092002 1.152 12493473
0.58487999 -0.033973999 1.148 11308430
0.58710098 -0.033973999 1.148 10189195
0.58726799 -0.033854999 1.1440001 9466761
0.589481 -0.033854999 1.1440001 8748169
0.591694 -0.033854999 1.1440001 8814729
0.59390599 -0.033854999 1.1440001 8880269
0.59611899 -0.033854999 1.1440001 9011345
0.60042399 -0.033973999 1.148 9208460
0.60264403 -0.033973999 1.148 8615815
0.60275698 -0.033854999 1.1440001 8023918
0.60496998 -0.033854999 1.1440001 6512469
0.60718298 -0.033854999 1.1440001 5058355
-0.023500999 -0.028971 1.0474 262914
-0.021536 -0.029053999 1.0504 393987
-0.019505 -0.029053999 1.0504 525062
-0.017523 -0.029137 1.0534 459529
-0.015485 -0.029137 1.0534 394251
-0.013448 -0.029137 1.0534 591118
-0.01141 -0.029137 1.0534 789006
-0.0093729999 -0.029137 1.0534 986639
-0.0073350002 -0.029137 1.0534 1183250
-0.005318 -0.029247001 1.0574 1182998
-0.0032599999 -0.029137 1.0534 1182742
-0.001227 -0.029247001 1.0574 1379351
0.000818 -0.029247001 1.0574 1642516
0.0028629999 -0.029247001 1.0574 1445393
0.004923 -0.02933 1.0604 1248272
0.006974 -0.02933 1.0604 1183248
0.009025 -0.02933 1.0604 1184015
0.011076 -0.02933 1.0604 1183247
0.013127 -0.02933 1.0604 1249039
0.015178 -0.02933 1.0604 1183248
0.017229 -0.02933 1.0604 1183247
0.01928 -0.02933 1.0604 1248271
0.021330999 -0.02933 1.0604 1313555
0.023382001 -0.02933 1.0604 1314071
0.025433 -0.02933 1.0604 1248532
0.027484 -0.02933 1.0604 1248785
0.029534999 -0.02933 1.0604 1248783
0.031585999 -0.02933 1.0604 1249038
0.033636998 -0.02933 1.0604 1249808
0.035689 -0.02933 1.0604 1249298
0.03774 -0.02933 1.0604 1249298
0.039790999 -0.02933 1.0604 1249042
0.041841999 -0.02933 1.0604 1248785
0.044025 -0.029418999 1.0635999 1248785
0.046082001 -0.029418999 1.0635999 1183249
0.048276 -0.029502001 1.0666 1183505
0.050197002 -0.029418999 1.0635999 1184017
0.052253999 -0.029418999 1.0635999 1118482
0.054311 -0.029418999 1.0635999 1052956
0.056527998 -0.029502001 1.0666 1184039
0.058591001 -0.029502001 1.0666 1315096
0.060653999 -0.029502001 1.0666 1315081
0.062716998 -0.029502001 1.0666 1314829
0.064779997 -0.029502001 1.0666 1380369
0.066843003 -0.029502001 1.0666 1445393
0.0691 -0.029585 1.0696 1379857
0.071168996 -0.029585 1.0696 1379597
0.073238 -0.029585 1.0696 1248521
0.075305998 -0.029585 1.0696 1183499
0.077375002 -0.029585 1.0696 1249293
0.079443999 -0.029585 1.0696 1316106
0.081513003 -0.029585 1.0696 1184519
0.083581999 -0.029585 1.0696 1053709
0.085651003 -0.029585 1.0696 1184019
0.087719999 -0.029585 1.0696 1380882
0.090124004 -0.029695 1.0736001 1249810
0.092201002 -0.029695 1.0736001 1184281
0.094277002 -0.029695 1.0736001 1249312
0.096354 -0.029695 1.0736001 1314589
0.098430999 -0.029695 1.0736001 1314586
0.100507 -0.029695 1.0736001 1249050
0.102584 -0.029695 1.0736001 1249562
0.104953 -0.029778 1.0766 1249815
0.106737 -0.029695 1.0736001 1315605
0.109118 -0.029778 1.0766 1447189
0.1112 -0.029778 1.0766 1512213
0.113598 -0.029860999 1.0796 1577493
0.115686 -0.029860999 1.0796 1446677
0.117775 -0.029860999 1.0796 1381653
0.120307 -0.029972 1.0836 1381653
0.122403 -0.029972 1.0836 1381397
0.124499 -0.029972 1.0836 1446933
0.126945 -0.030055 1.0865999 1578007
0.12904701 -0.030055 1.0865999 1446938
0.13114899 -0.030055 1.0865999 1381656
0.13325 -0.030055 1.0865999 1316119
0.135352 -0.030055 1.0865999 1251091
0.137454 -0.030055 1.0865999 1382160
0.13955601 -0.030055 1.0865999 1447694
0.14165699 -0.030055 1.0865999 1512717
0.143759 -0.030055 1.0865999 1643801
0.145861 -0.030055 1.0865999 1774374
0.147963 -0.030055 1.0865999 1970461
0.15006401 -0.030055 1.0865999 1774101
0.15216599 -0.030055 1.0865999 1578259
0.154268 -0.030055 1.0865999 1643794
0.15637 -0.030055 1.0865999 1775636
0.158471 -0.030055 1.0865999 1709591
0.16057301 -0.030055 1.0865999 1709082
0.16327401 -0.030166 1.0906 1709085
0.164776 -0.030055 1.0865999 1644056
0.166878 -0.030055 1.0865999 1710100
0.16960201 -0.030166 1.0906 1710615
0.171711 -0.030166 1.0906 1710362
0.174299 -0.030249 1.0936 1710364
0.176898 -0.030331001 1.0966001 1709342
0.179019 -0.030331001 1.0966001 1709346
0.179489 -0.030055 1.0865999 1775142
0.18159001 -0.030055 1.0865999 1841184
0.18369199 -0.030055 1.0865999 1840923
0.18699101 -0.030249 1.0936 1841437
0.189106 -0.030249 1.0936 1710368
0.191221 -0.030249 1.0936 1579553
0.19333699 -0.030249 1.0936 1776162
0.195988 -0.030331001 1.0966001 1972770
0.198109 -0.030331001 1.0966001 1972770
0.20023 -0.030331001 1.0966001 2038562
0.202351 -0.030331001 1.0966001 1973026
0.20447201 -0.030331001 1.0966001 1908511
0.20659401 -0.030331001 1.0966001 1776925
0.20871501 -0.030331001 1.0966001 1711389
0.21025901 -0.030249 1.0936 1907997
0.212374 -0.030249 1.0936 2104862
0.214489 -0.030249 1.0936 2104863
0.217199 -0.030331001 1.0966001 2104862
0.21932 -0.030331001 1.0966001 2104606
0.222289 -0.030448001 1.1008 2105117
0.224418 -0.030448001 1.1008 2039325
0.226548 -0.030448001 1.1008 1973534
0.228677 -0.030448001 1.1008 2104351
0.231435 -0.030531 1.1038001 2300702
0.23356999 -0.030531 1.1038001 2104862
0.235064 -0.030448001 1.1008 1974551
0.237194 -0.030448001 1.1008 2105105
0.23932301 -0.030448001 1.1008 2300439
0.24145199 -0.030448001 1.1008 2234909
0.24424499 -0.030531 1.1038001 2234912
0.24638 -0.030531 1.1038001 2365987
0.24784 -0.030448001 1.1008 2562593
0.25064999 -0.030531 1.1038001 2497823
0.252785 -0.030531 1.1038001 2432796
0.25492001 -0.030531 1.1038001 2301210
0.25705501 -0.030531 1.1038001 2170140
0.260129 -0.030641001 1.1078 2104607
0.26298201 -0.030724 1.1108 2104866
0.265131 -0.030724 1.1108 2039334
0.26728001 -0.030724 1.1108 1973797
0.27039799 -0.030835001 1.1148 2038820
0.271577 -0.030724 1.1108 2169890
0.273725 -0.030724 1.1108 2169888
0.27587399 -0.030724 1.1108 2170400
0.277271 -0.030641001 1.1078 2235936
0.28017101 -0.030724 1.1108 2301987
0.28231901 -0.030724 1.1108 2170663
0.284468 -0.030724 1.1108 2105127
0.30489901 -0.030835001 1.1148 2235422
0.307055 -0.030835001 1.1148 2170402
0.30921099 -0.030835001 1.1148 2300967
0.31136799 -0.030835001 1.1148 2432041
0.31464899 -0.030946 1.1188 2366508
0.31681299 -0.030946 1.1188 2236202
0.326462 -0.030835001 1.1148 2432552
0.32861799 -0.030835001 1.1148 2170661
0.33077401 -0.030835001 1.1148 2301730
0.331736 -0.030724 1.1108 2432549
0.33388501 -0.030724 1.1108 2367273
0.33603299 -0.030724 1.1108 2368040
0.33939901 -0.030835001 1.1148 2302504
0.34033 -0.030724 1.1108 2302761
0.34247899 -0.030724 1.1108 2368299
0.34369701 -0.030641001 1.1078 2434091
0.36322901 -0.031029001 1.1217999 2499627
0.365399 -0.031029001 1.1217999 2630185
0.366586 -0.030946 1.1188 2695719
0.36743101 -0.030835001 1.1148 2761513
0.37091401 -0.030946 1.1188 2695724
0.37307799 -0.030946 1.1188 2630188
0.37524199 -0.030946 1.1188 2761260
0.377406 -0.030946 1.1188 2892588
0.37957001 -0.030946 1.1188 2827052
0.38173401 -0.030946 1.1188 2827311
0.38389799 -0.030946 1.1188 2762034
0.386062 -0.030946 1.1188 2697004
0.389267 -0.031029001 1.1217999 2696487
0.57198799 -0.032279 1.1670001 9069068
0.57227701 -0.032168001 1.163 7624263
0.57255 -0.032056998 1.159 7760002
0.57479203 -0.032056998 1.159 7899300
0.577034 -0.032056998 1.159 10002374
0.57777601 -0.031973999 1.156 12173266
0.58001202 -0.031973999 1.156 12961247
0.58224797 -0.031973999 1.156 13813952
0.58448398 -0.031973999 1.156 12759458
0.58468997 -0.031863999 1.152 11703701
0.586918 -0.031863999 1.152 10519432
0.58710098 -0.031753 1.148 9335946
0.58932102 -0.031753 1.148 9140620
0.59154201 -0.031753 1.148 8945549
0.59376198 -0.031753 1.148 8945807
0.59598303 -0.031753 1.148 9011346
0.598203 -0.031753 1.148 9077141
0.602516 -0.031863999 1.152 9208460
0.60264403 -0.031753 1.148 8352387
0.60486501 -0.031753 1.148 7498598
0.60496998 -0.031643 1.1440001 5656138
0.60718298 -0.031643 1.1440001 3808043
-0.021536 -0.027022 1.0504 394246
-0.019634999 -0.027202001 1.0574 525062
-0.017588999 -0.027202001 1.0574 525062
-0.015544 -0.027202001 1.0574 590856
-0.013499 -0.027202001 1.0574 722441
-0.011453 -0.027202001 1.0574 854540
-0.0094079999 -0.027202001 1.0574 1117711
-0.007363 -0.027202001 1.0574 1379605
-0.005318 -0.027202001 1.0574 1313818
-0.003272 -0.027202001 1.0574 1313820
-0.0012309999 -0.027279001 1.0604 1313823
0.00082000002 -0.027279001 1.0604 1379352
0.002871 -0.027279001 1.0604 1248273
0.004923 -0.027279001 1.0604 1117457
0.006974 -0.027279001 1.0604 1248785
0.009025 -0.027279001 1.0604 1379859
0.011076 -0.027279001 1.0604 1248789
0.013127 -0.027279001 1.0604 1183507
0.015178 -0.027279001 1.0604 1314833
0.017229 -0.027279001 1.0604 1511186
0.01928 -0.027279001 1.0604 1445396
0.021330999 -0.027279001 1.0604 1379609
0.023382001 -0.027279001 1.0604 1379615
0.025433 -0.027279001 1.0604 1379864
0.027484 -0.027279001 1.0604 1315345
0.029624 -0.027361 1.0635999 1249809
0.031682 -0.027361 1.0635999 1184528
0.033739001 -0.027361 1.0635999 1184275
0.035796002 -0.027361 1.0635999 1184023
0.037852999 -0.027361 1.0635999 1184022
0.039790999 -0.027279001 1.0604 1184789
0.041841999 -0.027279001 1.0604 1183251
0.044025 -0.027361 1.0635999 1249809
0.046082001 -0.027361 1.0635999 1379857
0.048276 -0.027439 1.0666 1379857
0.050338998 -0.027439 1.0666 1380626
0.052253999 -0.027361 1.0635999 1249298
0.054465 -0.027439 1.0666 1184024
0.056527998 -0.027439 1.0666 1380894
0.058591001 -0.027439 1.0666 1577492
0.060653999 -0.027439 1.0666 1511947
0.062716998 -0.027439 1.0666 1511693
0.064779997 -0.027439 1.0666 1511695
0.067031004 -0.027516 1.0696 1511441
0.0691 -0.027516 1.0696 1445907
0.071434997 -0.027619001 1.0736001 1380112
0.073238 -0.027516 1.0696 1380110
0.075588003 -0.027619001 1.0736001 1380367
0.077375002 -0.027516 1.0696 1315088
0.079443999 -0.027516 1.0696 1250575
0.081513003 -0.027516 1.0696 1184526
0.083581999 -0.027516 1.0696 1118992
0.085651003 -0.027516 1.0696 1184019
0.088048004 -0.027619001 1.0736001 1249811
0.090124004 -0.027619001 1.0736001 1184531
0.092201002 -0.027619001 1.0736001 1184279
0.094540998 -0.027696 1.0766 1249562
0.096354 -0.027619001 1.0736001 1315353
0.098706 -0.027696 1.0766 1316119
0.100788 -0.027696 1.0766 1381399
0.10287 -0.027696 1.0766 1381399
0.104953 -0.027696 1.0766 1381398
0.107035 -0.027696 1.0766 1381653
0.109118 -0.027696 1.0766 1381655
0.1112 -0.027696 1.0766 1512729
0.113598 -0.027773 1.0796 1709079
0.115686 -0.027773 1.0796 1512981
0.117775 -0.027773 1.0796 1381653
0.120307 -0.027876001 1.0836 1381654
0.122403 -0.027876001 1.0836 1447192
0.124499 -0.027876001 1.0836 1447707
0.126945 -0.027953001 1.0865999 1447451
0.12904701 -0.027953001 1.0865999 1447195
0.13114899 -0.027953001 1.0865999 1512988
0.13374101 -0.028055999 1.0906 1316637
0.13585 -0.028055999 1.0906 1185561
0.137454 -0.027953001 1.0865999 1317652
0.13955601 -0.027953001 1.0865999 1513491
0.14165699 -0.027953001 1.0865999 1512723
0.143759 -0.027953001 1.0865999 1512985
0.145861 -0.027953001 1.0865999 1513248
0.147963 -0.027953001 1.0865999 1512986
0.15006401 -0.027953001 1.0865999 1447445
0.15216599 -0.027953001 1.0865999 1447447
0.154268 -0.027953001 1.0865999 1578522
0.15637 -0.027953001 1.0865999 1709593
0.158471 -0.027953001 1.0865999 1709848
0.16057301 -0.027953001 1.0865999 1774875
0.16267499 -0.027953001 1.0865999 1774623
0.165383 -0.028055999 1.0906 1840669
0.167493 -0.028055999 1.0906 1841692
0.16960201 -0.028055999 1.0906 1841690
0.171711 -0.028055999 1.0906 1776408
0.174777 -0.028209999 1.0966001 1710618
0.176898 -0.028209999 1.0966001 1709853
0.179019 -0.028209999 1.0966001 1775396
0.180149 -0.028055999 1.0906 1775915
0.18159001 -0.027953001 1.0865999 1775651
0.18487599 -0.028132999 1.0936 1840667
0.18699101 -0.028132999 1.0936 1972250
0.189106 -0.028132999 1.0936 1840922
0.191221 -0.028132999 1.0936 1710621
0.19333699 -0.028132999 1.0936 1906976
